ply
format ascii 1.0
comment File exported by Rhinoceros Version 8
element vertex 788
property float x
property float y
property float z
property uchar red
property uchar green
property uchar blue
end_header
773.9329189062119 1152.0664691925049 33.871471881866455 0 0 0
527.6119783520699 1356.59259557724 -6.996452808380127 0 0 0
720.4036489129066 1218.1930243968964 -6.969034671783447 0 0 0
658.6268842220306 1210.9823822975159 22.295475006103516 0 0 0
650.5231149494648 1215.9062922000885 32.26381540298462 0 0 0
529.3063968420029 1236.6722524166107 -5.98597526550293 0 0 0
586.5817070007324 1457.7876329421997 -3.703087568283081 0 0 0
574.0529894828796 1459.950566291809 -1.9665062427520752 0 0 0
583.6895182728767 1464.15513753891 -2.508103847503662 0 0 0
664.1314625740051 1294.8748469352722 -6.4826905727386475 0 0 0
665.0192737579346 1302.478313446045 -6.928563117980957 0 0 0
671.6797575354576 1304.4326901435852 -7.056236267089844 0 0 0
773.4907865524292 1154.5471847057343 37.26315498352051 0 0 0
591.5247891098261 1324.5867490768433 -8.262962102890015 0 0 0
548.081673681736 1325.4283368587494 -7.379591464996338 0 0 0
543.6204373836517 1232.9599857330322 -6.30950927734375 0 0 0
603.9693281054497 1222.0500111579895 60.052305459976196 0 0 0
615.2240104274824 1226.35817527771 59.41206216812134 0 0 0
562.5173225998878 1244.1200613975525 -7.6160728931427 0 0 0
544.1362857818604 1245.5151975154877 -6.6821277141571045 0 0 0
802.3787587881088 1163.4981036186218 -0.759810209274292 0 0 0
794.9187308549881 1168.5232818126678 0.12037158012390137 0 0 0
541.7027547955513 1200.5256414413452 79.97529208660126 0 0 0
631.6988468170166 1213.9527797698975 35.09652614593506 0 0 0
625.8262982591987 1282.727301120758 -6.164968013763428 0 0 0
626.1793877929449 1268.9651250839233 -5.330830812454224 0 0 0
775.5519896745682 1155.7068228721619 29.739975929260254 0 0 0
779.1830748319626 1155.3424298763275 22.65051007270813 0 0 0
522.5978419184685 1282.8303277492523 -7.3393285274505615 0 0 0
526.7087072134018 1303.850382566452 -7.502198219299316 0 0 0
653.3918306231499 1419.5554852485657 -8.390843868255615 0 0 0
642.4114424735308 1411.7847681045532 -8.196115493774414 0 0 0
637.5783327966928 1425.7165789604187 -8.4361732006073 0 0 0
606.109962798655 1335.0521326065063 -8.046656847000122 0 0 0
623.5796082764864 1333.3930373191833 -7.7055394649505615 0 0 0
605.8355253189802 1322.9772448539734 -8.26755166053772 0 0 0
520.600214600563 1416.4345860481262 -6.82106614112854 0 0 0
528.4105092287064 1323.0603635311127 -7.452040910720825 0 0 0
515.4577866196632 1325.2514004707336 -7.403731346130371 0 0 0
524.3011191487312 1337.5186920166016 -7.330060005187988 0 0 0
797.851949930191 1118.9848482608795 26.34561061859131 0 0 0
773.4652906656265 1161.1388027668 41.48221015930176 0 0 0
605.1017176359892 1204.1020393371582 -3.855377435684204 0 0 0
564.0054568648338 1181.088149547577 4.653960466384888 0 0 0
569.132000207901 1187.2714757919312 -0.8497834205627441 0 0 0
574.7929364442825 1185.5626106262207 4.45556640625 0 0 0
662.9387736320496 1244.9829876422882 80.54004609584808 0 0 0
662.2906625270844 1241.00723862648 71.25471532344818 0 0 0
668.3261655271053 1242.9845929145813 76.96652412414551 0 0 0
568.3239623904228 1177.6508390903473 17.91509985923767 0 0 0
806.1143159866333 1123.8491833209991 10.639429092407227 0 0 0
469.9864387512207 1329.1472792625427 -8.271276950836182 0 0 0
466.8494760990143 1348.0334281921387 -8.213818073272705 0 0 0
526.0066390037537 1160.4872345924377 25.63333511352539 0 0 0
485.28291285037994 1342.972218990326 -7.623225450515747 0 0 0
500.26822090148926 1326.3895511627197 -7.354021072387695 0 0 0
483.91635715961456 1317.546159029007 -7.858604192733765 0 0 0
633.4956735372543 1244.3711459636688 92.67868101596832 0 0 0
637.1781826019287 1241.9630885124207 82.41251111030579 0 0 0
645.9682621061802 1247.4291622638702 93.6552882194519 0 0 0
543.1692898273468 1184.9392652511597 46.327412128448486 0 0 0
468.3728218078613 1303.353488445282 -8.318960666656494 0 0 0
481.86400532722473 1303.0409812927246 -8.041083812713623 0 0 0
480.4122895002365 1290.790170431137 -7.803231477737427 0 0 0
820.6604719161987 1150.0751376152039 -2.225905656814575 0 0 0
553.3456988632679 1235.373705625534 -7.234513759613037 0 0 0
538.5142043232918 1326.9941210746765 -7.4148476123809814 0 0 0
544.886939227581 1335.1728320121765 -7.235288619995117 0 0 0
795.5198138952255 1125.1362562179565 26.192516088485718 0 0 0
591.0349432379007 1198.667049407959 -3.943532705307007 0 0 0
578.0912488698959 1203.3595144748688 -7.980585098266602 0 0 0
594.3880267441273 1205.7932019233704 -6.180077791213989 0 0 0
759.231448173523 1182.8995048999786 45.242369174957275 0 0 0
761.3929659128189 1175.45285820961 41.42749309539795 0 0 0
767.0989036560059 1164.2324030399323 38.3448600769043 0 0 0
766.3776278495789 1165.1026606559753 32.70316123962402 0 0 0
589.3328040838242 1374.6577501296997 -7.987409830093384 0 0 0
583.7943237274885 1382.8587532043457 -7.90482759475708 0 0 0
601.3424135744572 1380.6467056274414 -7.715702056884766 0 0 0
522.3872810602188 1177.5888800621033 -1.7427504062652588 0 0 0
785.9626710414886 1167.324811220169 2.690911293029785 0 0 0
592.4340132623911 1248.8005459308624 -6.27782940864563 0 0 0
594.8637966066599 1235.657811164856 -7.220655679702759 0 0 0
624.7287364676595 1202.006757259369 -1.3772845268249512 0 0 0
614.1963097034022 1201.1096775531769 -1.5326142311096191 0 0 0
801.1906743049622 1283.4997177124023 -6.665349006652832 0 0 0
783.1653356552124 1271.2295353412628 -6.558656692504883 0 0 0
786.1671149730682 1291.8012142181396 -6.600290536880493 0 0 0
811.161682009697 1158.0100357532501 -1.7963051795959473 0 0 0
714.5128771662712 1367.3548102378845 -7.06171989440918 0 0 0
713.5656252503395 1349.0800261497498 -6.748765707015991 0 0 0
700.3630474209785 1364.3675446510315 -6.06963038444519 0 0 0
566.5160119533539 1215.9876823425293 106.31677508354187 0 0 0
550.4269152879715 1207.0878446102142 101.28055512905121 0 0 0
541.0049110651016 1220.6517159938812 -5.502671003341675 0 0 0
552.5144711136818 1224.6168553829193 -6.716549396514893 0 0 0
652.8486050665379 1231.4934730529785 53.98896336555481 0 0 0
782.9118818044662 1182.6671659946442 -0.016748905181884766 0 0 0
785.4857742786407 1173.941195011139 1.167386770248413 0 0 0
774.2830961942673 1173.8405227661133 3.310680389404297 0 0 0
640.1315927505493 1212.7351462841034 29.65223789215088 0 0 0
631.9280304014683 1208.372712135315 24.909615516662598 0 0 0
646.6005854308605 1210.3473246097565 20.640790462493896 0 0 0
587.8194104880095 1195.3054070472717 32.94602036476135 0 0 0
576.8921487033367 1192.6853358745575 35.48964858055115 0 0 0
577.3189477622509 1187.3262524604797 28.497308492660522 0 0 0
693.6738416552544 1287.2120141983032 -6.742000579833984 0 0 0
707.852728664875 1294.118344783783 -7.142931222915649 0 0 0
705.3289487957954 1278.879851102829 -6.2503814697265625 0 0 0
804.7356307506561 1114.7087216377258 14.260023832321167 0 0 0
801.5367984771729 1110.381156206131 17.624706029891968 0 0 0
800.3844916820526 1115.6585216522217 21.32555842399597 0 0 0
628.199853003025 1315.3167366981506 -7.600307464599609 0 0 0
638.2117532193661 1326.6087472438812 -7.518976926803589 0 0 0
648.2355892658234 1315.3624534606934 -7.845282554626465 0 0 0
573.6451745033264 1219.6371257305145 137.14152574539185 0 0 0
581.8792507052422 1222.1993207931519 150.9019285440445 0 0 0
548.1056123971939 1213.8683199882507 -6.170362234115601 0 0 0
549.8687401413918 1217.677503824234 -6.600886583328247 0 0 0
488.92827332019806 1223.3118116855621 -5.582928657531738 0 0 0
499.80378895998 1211.0722661018372 -5.323737859725952 0 0 0
637.9866264760494 1237.1619045734406 68.22511553764343 0 0 0
638.7755759060383 1232.500582933426 58.84888768196106 0 0 0
530.7333767414093 1172.0475852489471 0.576317310333252 0 0 0
535.1727083325386 1167.4102246761322 4.975020885467529 0 0 0
525.1977890729904 1165.5882596969604 4.379153251647949 0 0 0
611.4975186064839 1232.4410378932953 75.46474039554596 0 0 0
607.3675132356584 1227.5825142860413 66.65675342082977 0 0 0
624.1404917091131 1232.8471839427948 66.79052114486694 0 0 0
601.7157910391688 1192.7385926246643 7.380932569503784 0 0 0
585.6146793812513 1188.3672773838043 6.967484951019287 0 0 0
591.2314113229513 1191.7305886745453 3.282606601715088 0 0 0
678.2067343592644 1242.08602309227 75.35867393016815 0 0 0
671.0553057491779 1240.4703199863434 70.4602599143982 0 0 0
677.8051927685738 1239.2553985118866 68.2445764541626 0 0 0
598.0083364993334 1212.930828332901 48.29668998718262 0 0 0
533.4432199597359 1289.026439189911 -7.163435220718384 0 0 0
709.500290453434 1210.7610702514648 -6.9595277309417725 0 0 0
704.0538638830185 1198.1778144836426 -6.762862205505371 0 0 0
698.5295042395592 1203.2982409000397 -5.9036314487457275 0 0 0
762.2295022010803 1309.338539838791 -6.892174482345581 0 0 0
496.01662158966064 1367.6944375038147 -7.145136594772339 0 0 0
511.2150013446808 1349.0079641342163 -7.169902324676514 0 0 0
499.2016926407814 1347.6532101631165 -7.27573037147522 0 0 0
784.0261459350586 1332.2156965732574 -6.890624761581421 0 0 0
772.5045382976532 1317.6872432231903 -6.881833076477051 0 0 0
753.5767555236816 1331.3038647174835 -7.64310359954834 0 0 0
763.2886469364166 1178.2538890838623 2.2467076778411865 0 0 0
762.6521438360214 1173.882931470871 3.8773417472839355 0 0 0
750.2859681844711 1176.8697500228882 1.4120042324066162 0 0 0
525.7581695914268 1162.1332466602325 8.416086435317993 0 0 0
528.9995670318604 1161.3819003105164 10.850131511688232 0 0 0
523.0429768562317 1159.2451333999634 13.148248195648193 0 0 0
508.340485394001 1228.6321222782135 -5.481630563735962 0 0 0
527.4410918354988 1214.6619856357574 -4.742711782455444 0 0 0
513.9172002673149 1210.9695076942444 -4.8645734786987305 0 0 0
743.9004927873611 1194.421797990799 -3.787428140640259 0 0 0
739.4429594278336 1186.270833015442 -3.32602858543396 0 0 0
732.4265986680984 1195.0783133506775 -5.665481090545654 0 0 0
742.4567490816116 1178.4541606903076 30.102849006652832 0 0 0
740.3939813375473 1175.8727431297302 22.557884454727173 0 0 0
748.2231706380844 1175.4963397979736 24.88437294960022 0 0 0
773.9244252443314 1167.573630809784 5.854427814483643 0 0 0
718.7859565019608 1235.1806461811066 -7.43451714515686 0 0 0
733.7222024798393 1229.9028635025024 -6.994843482971191 0 0 0
715.3662592172623 1225.9040176868439 -7.06973671913147 0 0 0
509.57612693309784 1200.445830821991 -5.08156418800354 0 0 0
523.9304825663567 1200.4170417785645 -4.781484603881836 0 0 0
525.8898586034775 1193.6579048633575 -4.4289231300354 0 0 0
560.64448133111 1316.473513841629 -7.490426301956177 0 0 0
577.4982869625092 1321.7143416404724 -7.759809494018555 0 0 0
707.5830325484276 1269.1965103149414 -6.5552592277526855 0 0 0
823.5447108745575 1138.4165585041046 -0.3210306167602539 0 0 0
634.3201529234648 1212.2162878513336 -2.700895071029663 0 0 0
619.239289779216 1207.9501748085022 -3.876596689224243 0 0 0
637.301616370678 1203.2805681228638 0.758826732635498 0 0 0
631.0950871556997 1200.4596292972565 4.757225513458252 0 0 0
633.3442591130733 1203.6068141460419 -0.48345327377319336 0 0 0
672.7307066321373 1231.1990857124329 -7.0781409740448 0 0 0
678.042896091938 1246.4140057563782 -7.060110569000244 0 0 0
689.6274387836456 1231.769621372223 -7.335543632507324 0 0 0
569.7549842298031 1215.669572353363 146.3797092437744 0 0 0
561.5902096033096 1212.3451828956604 134.91256535053253 0 0 0
546.0943803191185 1196.526974439621 -4.893600940704346 0 0 0
787.8199070692062 1140.634834766388 24.92615580558777 0 0 0
787.8005653619766 1146.5123295783997 17.826884984970093 0 0 0
794.2479401826859 1134.0566873550415 19.9621319770813 0 0 0
441.4869099855423 1301.7005920410156 -8.066147565841675 0 0 0
455.91847598552704 1289.3791198730469 -7.981598377227783 0 0 0
564.6400339901447 1211.325764656067 78.81496846675873 0 0 0
575.5259841680527 1213.7750387191772 68.95074248313904 0 0 0
580.1983997225761 1219.6103632450104 81.21179044246674 0 0 0
536.1643880605698 1418.960988521576 -7.876574993133545 0 0 0
551.7145171761513 1407.8955054283142 -8.583903312683105 0 0 0
688.1016120314598 1202.218770980835 26.17824077606201 0 0 0
695.8503872156143 1198.9196240901947 25.820106267929077 0 0 0
697.4653676152229 1204.075187444687 33.55509042739868 0 0 0
519.3633362650871 1378.3832788467407 -6.5867602825164795 0 0 0
503.47937643527985 1384.9313259124756 -6.742924451828003 0 0 0
512.8606930375099 1392.0034766197205 -6.746560335159302 0 0 0
655.3107760846615 1225.3046035766602 45.75037956237793 0 0 0
659.846305847168 1219.9993431568146 38.802653551101685 0 0 0
664.2822995781898 1225.9258031845093 46.712011098861694 0 0 0
611.490701790899 1277.8913378715515 -5.27644157409668 0 0 0
598.1747210025787 1277.1671414375305 -5.417436361312866 0 0 0
598.575834184885 1290.7942831516266 -6.285250186920166 0 0 0
559.5765709877014 1173.7749576568604 18.976211547851562 0 0 0
556.2971644103527 1172.2290217876434 14.919072389602661 0 0 0
562.2349008917809 1175.074964761734 15.110641717910767 0 0 0
581.5763399004936 1235.8875572681427 -7.680952548980713 0 0 0
582.1027979254723 1222.3708629608154 -8.358865976333618 0 0 0
558.7868764996529 1197.5922882556915 -7.0133209228515625 0 0 0
816.498190164566 1130.651742219925 3.2660365104675293 0 0 0
806.7391961812973 1132.7583193778992 6.778031587600708 0 0 0
543.7562689185143 1206.1943709850311 -5.465179681777954 0 0 0
534.9079370498657 1194.1567063331604 -4.508882761001587 0 0 0
532.683789730072 1203.4705579280853 -4.730194807052612 0 0 0
566.7184107005596 1227.364182472229 -8.004873991012573 0 0 0
518.081434071064 1188.799113035202 -4.134565591812134 0 0 0
509.7443088889122 1177.4879395961761 -2.2231340408325195 0 0 0
614.6867692004889 1216.3710594177246 45.5532968044281 0 0 0
609.4407844357193 1219.3872332572937 54.12578582763672 0 0 0
552.092831581831 1277.6595056056976 -6.584733724594116 0 0 0
551.3632297515869 1262.1436417102814 -6.582796573638916 0 0 0
538.0700007081032 1275.738924741745 -6.772160530090332 0 0 0
476.07581317424774 1238.4353876113892 -6.15459680557251 0 0 0
470.28352320194244 1260.2288722991943 -6.903856992721558 0 0 0
487.3805046081543 1249.943107366562 -6.1667561531066895 0 0 0
799.7625470161438 1132.3516070842743 12.66220211982727 0 0 0
800.7972836494446 1122.4044561386108 18.233507871627808 0 0 0
798.3453571796417 1128.0691027641296 18.796563148498535 0 0 0
795.7451045513153 1146.2809443473816 6.986379623413086 0 0 0
764.2417848110199 1174.7542023658752 43.35516691207886 0 0 0
762.882262468338 1170.177012681961 38.28117251396179 0 0 0
768.203854560852 1168.7059998512268 42.86125302314758 0 0 0
613.9452240313403 1240.9737706184387 111.61205172538757 0 0 0
603.2922528684139 1236.493080854416 111.83492839336395 0 0 0
609.1916761361063 1238.2853329181671 104.86012697219849 0 0 0
545.1364889740944 1394.486904144287 -8.166968822479248 0 0 0
536.97769343853 1379.3121576309204 -6.7469775676727295 0 0 0
532.1779400110245 1390.6217217445374 -7.262229919433594 0 0 0
535.5959981679916 1340.6696915626526 -7.2501301765441895 0 0 0
542.6839143037796 1356.5425276756287 -7.194578647613525 0 0 0
546.5147793292999 1345.0143337249756 -7.29137659072876 0 0 0
783.043384552002 1161.7834866046906 5.091547966003418 0 0 0
773.3110934495926 1164.897620677948 10.506629943847656 0 0 0
788.9474779367447 1149.008184671402 10.949105024337769 0 0 0
780.3129404783249 1157.1142077445984 14.64870572090149 0 0 0
784.1706871986389 1155.173808336258 8.313298225402832 0 0 0
813.0318522453308 1363.623559474945 -8.37048888206482 0 0 0
831.5136730670929 1358.3679795265198 -9.168893098831177 0 0 0
811.6238564252853 1348.4094738960266 -7.343798875808716 0 0 0
695.9023624658585 1193.788766860962 -4.819601774215698 0 0 0
689.0097931027412 1188.1125271320343 -1.4660358428955078 0 0 0
687.4927803874016 1194.7308480739594 -2.3845136165618896 0 0 0
690.666027367115 1191.2871897220612 -2.8172433376312256 0 0 0
779.6867340803146 1145.022302865982 33.194780349731445 0 0 0
781.873807311058 1148.0465531349182 27.09367871284485 0 0 0
782.5180292129517 1140.139102935791 30.97403049468994 0 0 0
599.7697422280908 1441.352903842926 -6.805360317230225 0 0 0
603.9118897169828 1453.6062479019165 -6.048232316970825 0 0 0
613.7260772520676 1440.0228261947632 -7.456928491592407 0 0 0
825.4840672016144 1156.729131937027 -3.8307011127471924 0 0 0
808.117002248764 1170.3349649906158 -2.8667151927948 0 0 0
829.5395970344543 1172.52916097641 -5.126535892486572 0 0 0
707.9677432775497 1257.743000984192 -6.844907999038696 0 0 0
694.2180097103119 1246.1458444595337 -7.295936346054077 0 0 0
457.7317237854004 1263.1404101848602 -6.762385368347168 0 0 0
588.1118346005678 1267.2358751296997 -5.768388509750366 0 0 0
574.7722163796425 1256.9964230060577 -6.956875324249268 0 0 0
608.536830637604 1214.5493626594543 -6.155133247375488 0 0 0
624.9540848657489 1226.7496287822723 -5.584657192230225 0 0 0
624.3230868130922 1215.8159613609314 -4.893094301223755 0 0 0
778.9061218500137 1153.7696421146393 40.30361771583557 0 0 0
775.9362757205963 1151.243656873703 36.62833571434021 0 0 0
780.2439332008362 1147.7867364883423 37.809669971466064 0 0 0
576.9755728542805 1269.5409059524536 -6.60213828086853 0 0 0
566.0694316029549 1271.660476922989 -6.887197494506836 0 0 0
610.1910918951035 1211.545318365097 40.04034399986267 0 0 0
605.0333632156253 1214.9216532707214 46.72038555145264 0 0 0
599.4407273828983 1206.5284848213196 38.96340727806091 0 0 0
700.1089379191399 1266.6994035243988 -6.425350904464722 0 0 0
691.0243406891823 1259.3903541564941 -6.716132164001465 0 0 0
690.6959488987923 1273.1785476207733 -6.109446287155151 0 0 0
577.3491412401199 1282.0491194725037 -6.665050983428955 0 0 0
581.7369520664215 1302.1891415119171 -7.410407066345215 0 0 0
588.0170650780201 1284.0570509433746 -6.166249513626099 0 0 0
538.7102738022804 1167.08904504776 27.38642692565918 0 0 0
543.8453927636147 1176.8868565559387 36.775022745132446 0 0 0
527.1548330783844 1167.2861278057098 35.10734438896179 0 0 0
533.2657694816589 1403.9125442504883 -7.847398519515991 0 0 0
523.7040892243385 1394.1122889518738 -6.758183240890503 0 0 0
516.1363035440445 1403.7665128707886 -6.829708814620972 0 0 0
570.4215914011002 1414.981722831726 -8.018553256988525 0 0 0
583.6927648633718 1427.1060228347778 -7.067561149597168 0 0 0
583.4933333098888 1416.7312979698181 -7.80603289604187 0 0 0
798.7792789936066 1156.94859623909 1.7697513103485107 0 0 0
812.7896040678024 1149.1268277168274 -0.00426173210144043 0 0 0
808.2778304815292 1142.7512168884277 2.998948097229004 0 0 0
544.5246696472168 1285.6078445911407 -7.12740421295166 0 0 0
543.912298977375 1298.7676560878754 -7.08964467048645 0 0 0
560.0670911371708 1290.4434502124786 -6.860315799713135 0 0 0
573.8291703164577 1213.2520377635956 -8.544623851776123 0 0 0
567.5191804766655 1206.4582109451294 -8.284449577331543 0 0 0
557.0698343217373 1212.81698346138 -7.566690444946289 0 0 0
674.2528229951859 819.1175684332848 729.2249500751495 0 0 0
396.7447727918625 898.9700078964233 544.4854199886322 0 0 0
510.481558740139 1043.198749423027 475.68950057029724 0 0 0
608.5274224169552 1002.0899176597595 613.920658826828 0 0 0
635.851239785552 819.9789505451918 709.4778716564178 0 0 0
390.0490701198578 906.6362529993057 528.3806025981903 0 0 0
467.2076553106308 945.0480043888092 586.9705379009247 0 0 0
402.84790098667145 902.0125344395638 549.8639047145844 0 0 0
396.5130001306534 901.8162190914154 541.8489277362823 0 0 0
396.2320238351822 906.7941457033157 537.1817648410797 0 0 0
421.0585951805115 874.8130910098553 574.8185813426971 0 0 0
432.052806019783 856.2285788357258 580.7056725025177 0 0 0
363.80982398986816 837.6025459729135 489.51253294944763 0 0 0
700.181394815445 843.231750652194 751.4980137348175 0 0 0
387.4710649251938 902.4016261100769 529.5526683330536 0 0 0
460.1439833641052 925.6119877099991 598.6136496067047 0 0 0
478.4013330936432 929.7526404261589 613.3336126804352 0 0 0
381.5000057220459 900.2922773361206 523.1557190418243 0 0 0
383.898600935936 906.5599218010902 519.1014111042023 0 0 0
386.6646736860275 904.4675678014755 524.329274892807 0 0 0
419.6530729532242 895.6365063786507 571.9956457614899 0 0 0
401.8802046775818 917.3482954502106 533.5046350955963 0 0 0
474.162220954895 952.3093178868294 586.6020619869232 0 0 0
467.0356214046478 954.0351778268814 577.8334438800812 0 0 0
440.81251323223114 944.1067352890968 557.3587119579315 0 0 0
476.0619252920151 967.5323367118835 570.504754781723 0 0 0
424.1417497396469 895.5730199813843 577.1304070949554 0 0 0
462.2623920440674 932.3686882853508 595.3981578350067 0 0 0
483.17356407642365 936.3196715712547 612.0419800281525 0 0 0
478.7086993455887 939.7363290190697 604.0337979793549 0 0 0
379.50560450553894 924.9559938907623 494.53821778297424 0 0 0
497.88838624954224 919.2359000444412 635.7462704181671 0 0 0
418.77682507038116 932.0935308933258 541.8199598789215 0 0 0
442.03467667102814 950.4667744040489 550.5928695201874 0 0 0
420.35652697086334 928.812600672245 548.7487614154816 0 0 0
388.683557510376 908.2130566239357 523.4163701534271 0 0 0
443.11515986919403 868.6791397631168 598.9241898059845 0 0 0
416.3580387830734 944.6220025420189 519.6994841098785 0 0 0
446.39675319194794 873.1243349611759 604.0786802768707 0 0 0
393.83798837661743 911.4128574728966 527.2066295146942 0 0 0
389.49406147003174 913.3429154753685 519.2359983921051 0 0 0
460.5330377817154 937.2868239879608 587.9382193088531 0 0 0
455.277755856514 928.2826483249664 591.3942754268646 0 0 0
619.4368600845337 957.2524279356003 669.7399318218231 0 0 0
429.4288456439972 966.547042131424 507.11187720298767 0 0 0
409.07877683639526 884.200431406498 561.7963373661041 0 0 0
414.16260600090027 881.8261995911598 568.4045851230621 0 0 0
410.3888124227524 875.9054653346539 562.5850856304169 0 0 0
438.81919980049133 873.6651800572872 596.2786376476288 0 0 0
477.7357131242752 945.9002614021301 596.4504182338715 0 0 0
459.96661484241486 850.8844934403896 607.4121296405792 0 0 0
377.09036469459534 915.9412384033203 500.8948743343353 0 0 0
385.83095371723175 922.6696714758873 503.8925111293793 0 0 0
382.9541206359863 912.6099273562431 510.90309023857117 0 0 0
453.5645842552185 969.3615138530731 539.2687618732452 0 0 0
409.6214026212692 943.15554946661 511.2176835536957 0 0 0
415.3090715408325 932.9041168093681 535.2104008197784 0 0 0
417.37113893032074 938.4540468454361 529.7761857509613 0 0 0
458.1189304590225 880.1829516887665 615.1570379734039 0 0 0
459.1894894838333 884.303905069828 615.093320608139 0 0 0
467.7130728960037 938.5114312171936 595.4318940639496 0 0 0
473.2602387666702 938.7586265802383 600.3837287425995 0 0 0
470.78418731689453 931.5392151474953 604.7861278057098 0 0 0
446.41585648059845 964.1613960266113 537.2868478298187 0 0 0
458.04251730442047 954.1166871786118 568.575531244278 0 0 0
449.7396796941757 952.843189239502 559.1167509555817 0 0 0
449.59697127342224 961.0597789287567 547.4081933498383 0 0 0
458.8545560836792 963.2116854190826 557.8722655773163 0 0 0
411.6218686103821 954.6966254711151 497.18114733695984 0 0 0
413.3309870958328 949.736014008522 507.06133246421814 0 0 0
437.84791231155396 920.6864163279533 579.1619122028351 0 0 0
438.4153187274933 944.3975985050201 551.9649684429169 0 0 0
434.6223324537277 940.5754208564758 553.1101524829865 0 0 0
463.5978788137436 909.1758131980896 613.1891310214996 0 0 0
423.75144362449646 958.2443162798882 512.595921754837 0 0 0
435.0134879350662 966.5804952383041 516.6518986225128 0 0 0
427.610918879509 955.8727219700813 521.5300619602203 0 0 0
407.48606622219086 929.4732287526131 526.9724428653717 0 0 0
367.98350512981415 909.0205579996109 496.66163325309753 0 0 0
332.98733830451965 855.3854841738939 471.4321196079254 0 0 0
438.4506642818451 863.5707963258028 591.9865071773529 0 0 0
426.3749420642853 864.8813180625439 578.375905752182 0 0 0
430.28028309345245 872.7884851396084 585.4001939296722 0 0 0
603.2016687095165 1007.1527808904648 605.5520474910736 0 0 0
387.21172511577606 929.8484772443771 497.3818361759186 0 0 0
392.37330853939056 936.2231120467186 495.42269110679626 0 0 0
441.7469799518585 922.580398619175 582.3497474193573 0 0 0
511.66630536317825 923.8017052412033 641.7793333530426 0 0 0
580.2193582057953 1004.4556558132172 595.3177511692047 0 0 0
424.6077090501785 940.8482760190964 538.2432043552399 0 0 0
433.9042454957962 944.3453550338745 547.1185743808746 0 0 0
426.52374505996704 936.4441409707069 547.7399528026581 0 0 0
439.16188180446625 963.4916186332703 528.1507074832916 0 0 0
437.160462141037 953.1337469816208 539.9871170520782 0 0 0
426.94413661956787 949.4339972734451 530.0444066524506 0 0 0
422.48155176639557 856.2467526644468 568.575531244278 0 0 0
423.64899814128876 849.6383540332317 565.0632083415985 0 0 0
467.2514796257019 915.5698195099831 613.0647957324982 0 0 0
474.06861186027527 921.3163927197456 615.1483356952667 0 0 0
458.4726095199585 944.5374757051468 578.7225067615509 0 0 0
451.5823870897293 934.3303665518761 581.6479027271271 0 0 0
440.96943736076355 853.7027649581432 588.8693034648895 0 0 0
712.3004570603371 836.8262802250683 752.1455585956573 0 0 0
393.84059607982635 943.5727447271347 487.94785141944885 0 0 0
520.4750075936317 920.5192476511002 648.2636034488678 0 0 0
472.38944470882416 910.7457846403122 618.7730729579926 0 0 0
430.6691139936447 971.4722782373428 500.18689036369324 0 0 0
397.0943093299866 919.8365956544876 523.1515467166901 0 0 0
391.62300527095795 921.0531339049339 513.2982432842255 0 0 0
490.1847690343857 905.6888222694397 635.6107890605927 0 0 0
463.8748914003372 1005.9251189231873 497.0344603061676 0 0 0
446.1391866207123 987.6112192869186 497.39471077919006 0 0 0
406.73767030239105 912.3749732971191 545.7204282283783 0 0 0
411.307618021965 924.1761416196823 540.5591428279877 0 0 0
447.54302501678467 848.1901967898011 591.4150178432465 0 0 0
507.39749521017075 932.1400821208954 634.3229115009308 0 0 0
362.5347912311554 911.8290841579437 488.8748824596405 0 0 0
370.7713782787323 918.3268398046494 491.9678866863251 0 0 0
439.85721468925476 986.5236580371857 489.4762337207794 0 0 0
446.0659325122833 992.4522787332535 489.0219271183014 0 0 0
441.1519020795822 977.3019850254059 506.17578625679016 0 0 0
447.68835604190826 976.1779010295868 519.2160308361053 0 0 0
354.3917238712311 908.0058038234711 482.7288091182709 0 0 0
399.2370367050171 927.4038821458817 516.7700946331024 0 0 0
460.70145070552826 984.2910021543503 525.3501832485199 0 0 0
458.95689725875854 976.5311926603317 535.5234444141388 0 0 0
451.16861164569855 972.0911085605621 531.1696827411652 0 0 0
499.28269535303116 934.4034269452095 627.1466314792633 0 0 0
497.9158192873001 928.4529983997345 630.4962337017059 0 0 0
488.13772201538086 928.3657222986221 622.6964890956879 0 0 0
431.0048520565033 981.3923537731171 484.3732416629791 0 0 0
435.01509726047516 979.0349006652832 495.0859844684601 0 0 0
526.7174914479256 913.7292504310608 655.7919681072235 0 0 0
424.6659129858017 971.3637083768845 491.42125248908997 0 0 0
421.0115969181061 962.5005424022675 500.8322298526764 0 0 0
414.8048460483551 962.4801129102707 490.6022846698761 0 0 0
405.11271357536316 954.9656361341476 486.73757910728455 0 0 0
422.75501787662506 902.1025374531746 573.0606615543365 0 0 0
404.96912598609924 935.6748089194298 513.9736235141754 0 0 0
395.0480818748474 931.0132339596748 506.44972920417786 0 0 0
402.8953015804291 943.1852698326111 500.89868903160095 0 0 0
447.92795181274414 942.4826949834824 568.8957870006561 0 0 0
441.43375754356384 928.5793900489807 576.2421786785126 0 0 0
448.5517293214798 998.1626272201538 484.750360250473 0 0 0
408.753827214241 864.2993774265051 556.9721758365631 0 0 0
406.11661970615387 870.1978661119938 556.5583407878876 0 0 0
373.16159904003143 925.4860877990723 486.5002930164337 0 0 0
440.48774242401123 847.380043938756 582.9866826534271 0 0 0
435.63129007816315 851.560091599822 581.6705524921417 0 0 0
485.2394163608551 821.3490471243858 587.6915156841278 0 0 0
498.9822655916214 904.4948369264603 642.4512565135956 0 0 0
509.240947663784 912.6345664262772 646.1311280727386 0 0 0
414.14619982242584 870.8670698106289 564.4820630550385 0 0 0
415.1906818151474 874.0711398422718 567.7670538425446 0 0 0
451.29287242889404 899.1018831729889 606.4375340938568 0 0 0
459.11338925361633 900.1279696822166 612.6762330532074 0 0 0
468.8332676887512 1006.2527805566788 503.4774839878082 0 0 0
428.93049120903015 884.9194645881653 585.2303206920624 0 0 0
449.4006931781769 823.3195329084992 553.9445579051971 0 0 0
370.09668350219727 838.5620722547174 496.12316489219666 0 0 0
366.56178534030914 841.4740674197674 495.89434266090393 0 0 0
454.5768201351166 825.0524392351508 563.7888014316559 0 0 0
446.06608152389526 828.8323748856783 563.1276667118073 0 0 0
335.7485830783844 864.6501414477825 476.828008890152 0 0 0
435.6578588485718 828.5247911699116 550.4686534404755 0 0 0
516.395628452301 875.5936585366726 659.3146622180939 0 0 0
337.8402590751648 881.0443356633186 479.93502020835876 0 0 0
720.0675904750824 823.9801144227386 746.7767298221588 0 0 0
442.03779101371765 881.8452246487141 600.6256639957428 0 0 0
433.19593369960785 881.7179054021835 590.936928987503 0 0 0
608.7002381682396 849.7858308255672 708.3443105220795 0 0 0
624.8017670586705 898.3722031116486 707.4650824069977 0 0 0
610.2176900021732 858.7907534092665 708.9351713657379 0 0 0
429.6836405992508 898.8128751516342 583.4310948848724 0 0 0
475.33154487609863 825.277610681951 585.7556760311127 0 0 0
473.5722690820694 820.638868957758 573.9336907863617 0 0 0
415.34915566444397 892.0073918998241 567.9316818714142 0 0 0
411.4394634962082 889.3886730074883 563.438206911087 0 0 0
410.6713831424713 897.6678922772408 560.8411133289337 0 0 0
436.663419008255 834.4039274961688 562.5260174274445 0 0 0
579.3986655771732 850.6925366818905 693.3021247386932 0 0 0
437.9381239414215 891.0014145076275 596.3186919689178 0 0 0
431.24642968177795 890.4728516936302 588.3567631244659 0 0 0
492.17769503593445 822.6044960319996 599.6276438236237 0 0 0
341.6452705860138 875.6665140390396 483.97019505500793 0 0 0
347.3173677921295 874.7941181063652 492.02999472618103 0 0 0
591.749794781208 850.930493324995 700.1401484012604 0 0 0
543.1306287646294 876.2272968888283 675.4046380519867 0 0 0
505.30005246400833 821.5997200459242 611.799031496048 0 0 0
714.785486459732 831.189435441047 750.2945959568024 0 0 0
593.3024547994137 922.5839152932167 678.4641444683075 0 0 0
557.6907210052013 868.157047778368 683.0504238605499 0 0 0
538.911335170269 861.9747739285231 671.7695891857147 0 0 0
549.5194792747498 865.1007823646069 678.2042682170868 0 0 0
470.2196419239044 830.2939694840461 591.575413942337 0 0 0
357.6052784919739 842.7947638556361 488.9444410800934 0 0 0
324.4169056415558 877.2045075893402 467.54786372184753 0 0 0
333.1509232521057 873.6986555159092 475.87287425994873 0 0 0
325.2109885215759 866.8308183550835 467.3849940299988 0 0 0
454.64038848876953 868.9257055521011 611.4378869533539 0 0 0
495.5272227525711 872.9821778833866 646.1702287197113 0 0 0
381.5864324569702 886.4259570837021 528.666764497757 0 0 0
345.0538218021393 881.5360963344574 487.69453167915344 0 0 0
343.40059757232666 868.4112653136253 485.90412735939026 0 0 0
347.9958772659302 863.6779263615608 490.0457561016083 0 0 0
342.44227409362793 859.5437984913588 482.3357164859772 0 0 0
411.8975102901459 868.2887479662895 561.215728521347 0 0 0
417.41932928562164 866.5597923099995 567.4248039722443 0 0 0
430.9854805469513 848.7652810290456 573.92218708992 0 0 0
436.68578565120697 841.0527389496565 571.758359670639 0 0 0
533.4506630897522 923.2495501637459 653.754860162735 0 0 0
349.12800788879395 844.1165946424007 481.24435544013977 0 0 0
342.6491916179657 850.2724003046751 478.8110554218292 0 0 0
606.1196709051728 977.8771698474884 640.493780374527 0 0 0
503.8808658719063 864.8517690598965 650.051087141037 0 0 0
456.5010368824005 831.6911738365889 578.6084830760956 0 0 0
448.660284280777 834.0053334832191 575.2678215503693 0 0 0
465.9257382154465 835.7978088315576 595.2444970607758 0 0 0
587.3941071331501 917.0903116464615 679.1720688343048 0 0 0
468.54856610298157 963.6023789644241 568.3380663394928 0 0 0
534.8894894123077 1055.011361837387 482.550710439682 0 0 0
459.09520983695984 834.9324502050877 586.4209830760956 0 0 0
448.8694369792938 841.5913209319115 585.1381719112396 0 0 0
483.2860976457596 826.9908218644559 599.4108021259308 0 0 0
428.4356087446213 839.2363521270454 560.1136982440948 0 0 0
425.9164482355118 844.611412845552 563.584715127945 0 0 0
449.1584002971649 854.704488068819 599.2076098918915 0 0 0
447.964146733284 864.8254983127117 603.5129129886627 0 0 0
456.07736706733704 858.9059691876173 609.1900169849396 0 0 0
560.4527965188026 918.1718155741692 669.0278947353363 0 0 0
476.19736194610596 1008.4567964076996 507.9313814640045 0 0 0
631.1478670686483 927.5608509778976 698.2010900974274 0 0 0
503.82356345653534 989.4598722457886 567.8129494190216 0 0 0
364.2435669898987 862.1646612882614 506.45437836647034 0 0 0
638.4127363562584 932.7005818486214 701.1161148548126 0 0 0
634.4885155558586 923.294797539711 703.4232318401337 0 0 0
554.6289421617985 1012.1963918209076 571.201354265213 0 0 0
550.9491413831711 1014.3866688013077 565.8869445323944 0 0 0
350.4585921764374 888.0730159580708 492.08179116249084 0 0 0
493.5605674982071 893.6641477048397 641.6171491146088 0 0 0
615.3104824479669 949.5631009340286 673.3908355236053 0 0 0
422.122597694397 829.5478732325137 538.6907756328583 0 0 0
413.0660891532898 828.6568317562342 528.1495749950409 0 0 0
401.26340091228485 830.9915964491665 519.1939771175385 0 0 0
548.752449452877 1049.3441671133041 509.4779431819916 0 0 0
484.21043157577515 905.1923304796219 630.5988729000092 0 0 0
483.02188515663147 914.0077456831932 626.6830265522003 0 0 0
503.852479159832 981.7939102649689 578.9720714092255 0 0 0
353.1498610973358 879.9579739570618 498.4746277332306 0 0 0
461.62213385105133 824.2936180904508 568.7430202960968 0 0 0
455.33181726932526 828.3776738680899 572.0571577548981 0 0 0
464.40446376800537 827.6305161416531 579.7896683216095 0 0 0
354.9688458442688 867.4179166555405 499.27952885627747 0 0 0
572.3279267549515 1080.053299665451 474.7064411640167 0 0 0
475.1192182302475 971.9619154930115 563.8889968395233 0 0 0
359.1987192630768 882.4851363897324 504.6994388103485 0 0 0
528.2531455159187 945.0701326131821 635.2388560771942 0 0 0
468.05451810359955 971.6410636901855 557.2835505008698 0 0 0
558.530542999506 1009.7492635250092 576.1837661266327 0 0 0
387.40597665309906 832.5123703107238 507.4533522129059 0 0 0
356.09540343284607 894.2813016474247 495.21347880363464 0 0 0
530.3630530834198 1013.4608596563339 552.937775850296 0 0 0
564.8024752736092 1007.5413584709167 582.0158421993256 0 0 0
539.0995889902115 1019.4714218378067 552.0194470882416 0 0 0
548.4187006950378 948.0028674006462 643.3707177639008 0 0 0
577.9140777885914 934.0125843882561 667.343407869339 0 0 0
546.1529567837715 948.5391825437546 641.0936415195465 0 0 0
368.6932325363159 866.4256297051907 512.5016868114471 0 0 0
600.2282425761223 981.7001223564148 633.3431303501129 0 0 0
623.5427334904671 873.213991522789 714.1703069210052 0 0 0
358.7473928928375 888.4769715368748 501.6568601131439 0 0 0
364.3379807472229 898.9738970994949 500.5911886692047 0 0 0
362.225204706192 875.5589500069618 507.47010111808777 0 0 0
606.44038207829 994.5003986358643 620.9271252155304 0 0 0
595.1774548739195 996.9990104436874 612.7707660198212 0 0 0
366.2171959877014 848.3420489355922 501.0749399662018 0 0 0
369.7584718465805 856.5360214561224 509.49838757514954 0 0 0
511.88918948173523 978.6605685949326 588.394433259964 0 0 0
550.5493506789207 1064.2128437757492 480.08182644844055 0 0 0
542.0490726828575 943.9679011702538 643.4189975261688 0 0 0
526.3902693986893 934.7302466630936 642.6527202129364 0 0 0
608.9208796620369 943.546861410141 673.8689243793488 0 0 0
348.63555431365967 899.4916379451752 483.66478085517883 0 0 0
357.6385974884033 902.3417457938194 491.7903244495392 0 0 0
350.64926743507385 895.0450532138348 488.7712299823761 0 0 0
550.5640283226967 1021.0890620946884 557.7700436115265 0 0 0
547.3241209983826 932.2250336408615 654.7791063785553 0 0 0
558.9404478669167 924.8471856117249 664.9840772151947 0 0 0
377.8300732374191 849.4767136871815 514.5217478275299 0 0 0
408.4126949310303 835.1753680035472 534.0322554111481 0 0 0
557.2736971080303 940.4333084821701 653.7188589572906 0 0 0
564.8697912693024 935.7128143310547 660.9150469303131 0 0 0
496.6212809085846 825.4638481885195 611.7241680622101 0 0 0
560.9956420958042 911.943331360817 672.143429517746 0 0 0
571.9025060534477 920.5987602472305 672.470897436142 0 0 0
585.8764369040728 844.0383281558752 695.6830322742462 0 0 0
570.040762424469 905.4360389709473 678.2880127429962 0 0 0
566.8332129716873 895.1325938105583 681.8617284297943 0 0 0
593.273488804698 980.4994314908981 631.5754354000092 0 0 0
595.6723354756832 987.8705441951752 623.6841380596161 0 0 0
582.6159566640854 1030.2743315696716 564.3431842327118 0 0 0
582.1647346019745 1035.4333966970444 558.5819184780121 0 0 0
589.797031134367 1032.926931977272 566.0543143749237 0 0 0
521.5860828757286 1000.7962584495544 565.4605329036713 0 0 0
377.9764473438263 857.6966244727373 519.5527970790863 0 0 0
384.86579060554504 859.5097344368696 527.3875296115875 0 0 0
386.0737532377243 851.2805569916964 524.9508917331696 0 0 0
360.0867986679077 857.8933086246252 499.8972713947296 0 0 0
354.4754683971405 849.9448541551828 489.8739755153656 0 0 0
350.3861129283905 857.7332124114037 490.7504618167877 0 0 0
605.2831532433629 951.651357114315 665.9936010837555 0 0 0
370.6204444169998 874.5329603552818 516.5648758411407 0 0 0
474.25489127635956 835.0840128259733 604.0753424167633 0 0 0
459.83293652534485 842.8768403828144 598.4824597835541 0 0 0
593.11668202281 1010.4286372661591 594.8000252246857 0 0 0
377.69532203674316 840.0010066106915 506.13489747047424 0 0 0
505.78822940588 1023.682251572609 512.2841894626617 0 0 0
586.2219035625458 1043.4845983982086 550.1143038272858 0 0 0
550.5879372358322 1060.1188689470291 490.8728897571564 0 0 0
552.9806241393089 1063.96946310997 484.65779423713684 0 0 0
364.920049905777 884.328093379736 510.03220677375793 0 0 0
365.3312772512436 892.2125995159149 506.6393315792084 0 0 0
377.9759854078293 865.7185733318329 522.8143036365509 0 0 0
486.208438873291 994.6032911539078 539.2457544803619 0 0 0
550.0514283776283 855.3763963282108 676.7813265323639 0 0 0
520.2626138925552 948.5376626253128 627.6164352893829 0 0 0
525.0105261802673 948.9255920052528 630.154937505722 0 0 0
394.00771260261536 836.8575286585838 520.1341211795807 0 0 0
388.26967775821686 843.8504282385111 521.9292342662811 0 0 0
399.0701586008072 841.0296677611768 530.3668081760406 0 0 0
373.5952377319336 905.9388563036919 505.70210814476013 0 0 0
377.42216885089874 902.2075235843658 514.8000419139862 0 0 0
371.90525233745575 880.6127235293388 518.0136263370514 0 0 0
465.4376655817032 889.7312581539154 619.1578209400177 0 0 0
370.7549422979355 886.9190700352192 515.6740844249725 0 0 0
564.1830489039421 1019.5727497339249 567.7712261676788 0 0 0
575.0588588416576 1027.9884487390518 563.45996260643 0 0 0
582.8105621039867 1025.8032381534576 569.9915587902069 0 0 0
616.1746399011463 895.6280462443829 702.8959691524506 0 0 0
370.5187439918518 897.424653172493 508.9896619319916 0 0 0
368.51517856121063 891.2226893007755 511.44281029701233 0 0 0
378.096267580986 874.9821782112122 524.6131122112274 0 0 0
603.7598792463541 937.9292279481888 674.8155057430267 0 0 0
579.9630731344223 947.2543895244598 658.4675014019012 0 0 0
483.69021713733673 897.136889398098 632.436603307724 0 0 0
534.9847227334976 953.4134864807129 631.2344372272491 0 0 0
474.5122939348221 985.1727187633514 543.1506335735321 0 0 0
460.77339351177216 972.0783233642578 547.1958816051483 0 0 0
468.06952357292175 983.2632690668106 537.8073751926422 0 0 0
612.2877588495612 906.1552658677101 695.9476172924042 0 0 0
595.0552728027105 824.9988602474332 689.3564164638519 0 0 0
540.5294299125671 854.5383308082819 670.7830131053925 0 0 0
376.3933628797531 884.7235217690468 522.3411619663239 0 0 0
426.67485773563385 889.0600129961967 581.5441310405731 0 0 0
426.43827199935913 881.1965733766556 581.9049775600433 0 0 0
420.71273922920227 886.847048997879 574.7495591640472 0 0 0
386.5114450454712 866.7530082166195 532.0653021335602 0 0 0
461.9930684566498 918.7937900424004 606.4791977405548 0 0 0
506.6567733883858 823.4038166701794 618.2003319263458 0 0 0
522.9680314660072 963.9565795660019 612.1162474155426 0 0 0
617.0746569987386 881.6870674490929 708.2917988300323 0 0 0
699.9635621905327 828.1023320741951 743.8542544841766 0 0 0
706.2071338295937 824.3699371814728 743.9669072628021 0 0 0
567.6041841506958 1071.5629905462265 485.02179980278015 0 0 0
559.2626221477985 1064.7960901260376 490.61521887779236 0 0 0
622.6392351090908 904.35029566288 703.4619152545929 0 0 0
513.6499330401421 819.8643829673529 616.8600022792816 0 0 0
504.18955832719803 828.189751598984 624.6072351932526 0 0 0
605.302482843399 836.2239804118872 703.6097943782806 0 0 0
529.3694511055946 857.37244784832 663.9893352985382 0 0 0
573.5905170440674 955.2352279424667 648.7347185611725 0 0 0
568.2628452777863 1003.2007396221161 590.4429852962494 0 0 0
582.845825701952 1049.9072223901749 538.1352007389069 0 0 0
529.2825326323509 1037.907749414444 511.05591654777527 0 0 0
518.4759423136711 1027.4588614702225 520.5144584178925 0 0 0
515.7595500349998 1032.2935283184052 506.8427622318268 0 0 0
634.4949025660753 870.3935965895653 721.7258512973785 0 0 0
631.2219630926847 881.4772367477417 717.758446931839 0 0 0
549.7626438736916 957.4573487043381 635.2509558200836 0 0 0
454.42913472652435 908.3728045225143 605.8109700679779 0 0 0
451.6046792268753 917.0928746461868 597.137063741684 0 0 0
566.5063001215458 1063.612386584282 499.3186295032501 0 0 0
546.7281565070152 964.0751481056213 626.6013085842133 0 0 0
494.03154104948044 1002.4547427892685 534.2545211315155 0 0 0
622.4169144406915 863.6699877679348 715.1266038417816 0 0 0
632.7718440443277 859.8452694714069 721.503883600235 0 0 0
621.8773238360882 854.764673858881 715.4816687107086 0 0 0
528.526321053505 957.2438821196556 623.9870488643646 0 0 0
526.0303616523743 1006.2708407640457 559.3260228633881 0 0 0
579.1748464107513 858.3127968013287 693.7455832958221 0 0 0
591.3424324244261 869.7491139173508 698.3561813831329 0 0 0
439.46947157382965 916.8299660086632 583.9164555072784 0 0 0
446.3784396648407 922.8538870811462 586.6585075855255 0 0 0
517.2697082161903 942.2490671277046 631.9839656352997 0 0 0
506.57981634140015 940.0246888399124 627.7376115322113 0 0 0
580.6578993797302 1072.2808241844177 496.43459916114807 0 0 0
574.0702711045742 1068.446233868599 495.823472738266 0 0 0
578.7332318723202 1077.2218853235245 485.17361283302307 0 0 0
505.64222037792206 1008.8722854852676 537.37011551857 0 0 0
518.7725499272346 1020.7924246788025 533.2607924938202 0 0 0
539.4206717610359 1046.657145023346 504.87199425697327 0 0 0
553.5625219345093 1055.9573620557785 502.0662844181061 0 0 0
391.1406546831131 856.0743909329176 533.396452665329 0 0 0
687.669649720192 824.7728375717998 738.108366727829 0 0 0
542.158417403698 1053.6851584911346 494.23161149024963 0 0 0
533.8095501065254 1052.391991019249 487.27646470069885 0 0 0
513.2254511117935 904.8841148614883 652.6678502559662 0 0 0
517.7812203764915 911.2088084220886 652.1669328212738 0 0 0
521.9158753752708 904.4441059231758 658.222883939743 0 0 0
528.7179946899414 1019.4437652826309 544.3859994411469 0 0 0
503.47449630498886 1034.575030207634 485.0674569606781 0 0 0
395.32263576984406 848.0494813993573 533.1049263477325 0 0 0
621.9028583727777 846.4196547865868 714.7940099239349 0 0 0
563.4906515479088 1075.134664773941 473.46633672714233 0 0 0
556.3512481749058 1068.5970485210419 478.24743390083313 0 0 0
557.2954080998898 1072.719618678093 471.2231755256653 0 0 0
444.5277005434036 902.7947410941124 598.9613234996796 0 0 0
605.5068029090762 824.9340020120144 694.4320499897003 0 0 0
598.8255739212036 828.0862579122186 694.2058503627777 0 0 0
484.8228842020035 1010.1087838411331 513.5045349597931 0 0 0
478.5120487213135 1003.0945390462875 517.8260505199432 0 0 0
492.5197958946228 1028.486117720604 484.2625558376312 0 0 0
436.1218214035034 899.1971388459206 591.1000669002533 0 0 0
476.3430953025818 890.83431661129 627.5390684604645 0 0 0
561.1695721745491 835.3815450100228 674.9895513057709 0 0 0
569.5502310991287 874.355036765337 688.5108053684235 0 0 0
579.4900320470333 869.7875253856182 693.4185922145844 0 0 0
568.0799223482609 868.0047728121281 688.2621347904205 0 0 0
373.83511662483215 893.0607736110687 516.8309509754181 0 0 0
377.13494896888733 897.2977623343468 519.8098719120026 0 0 0
379.4211149215698 892.7592672407627 524.5654284954071 0 0 0
510.1158320903778 965.4387682676315 601.97314620018 0 0 0
384.944811463356 879.1956678032875 532.4006974697113 0 0 0
431.6641539335251 906.5288230776787 582.4216902256012 0 0 0
603.3706897869706 831.3370975665748 699.0765035152435 0 0 0
593.4753008186817 830.4814377333969 693.1380331516266 0 0 0
398.6590653657913 853.6404594779015 540.9821569919586 0 0 0
526.9390642642975 876.5041269361973 665.7001078128815 0 0 0
536.3620221614838 869.9326738715172 671.3176667690277 0 0 0
440.97496569156647 910.4523956775665 590.4419124126434 0 0 0
434.51474606990814 905.3055942058563 586.5587890148163 0 0 0
435.91415882110596 910.4833751916885 584.7713649272919 0 0 0
697.0212012529373 829.8085909336805 744.355171918869 0 0 0
478.0200719833374 897.64254540205 626.9900500774384 0 0 0
470.5539345741272 900.3535285592079 620.946079492569 0 0 0
478.9954423904419 903.9512351155281 626.5693604946136 0 0 0
484.45168137550354 866.2317506968975 637.3545229434967 0 0 0
513.2765099406242 949.0575417876244 623.4075129032135 0 0 0
497.82615900039673 942.8438693284988 618.5906827449799 0 0 0
610.0231250748038 972.7698117494583 647.7724015712738 0 0 0
609.8445295356214 963.5677188634872 657.2811901569366 0 0 0
582.1300037205219 908.7433815002441 680.7838380336761 0 0 0
624.1068439558148 930.754192173481 690.9748017787933 0 0 0
610.558198299259 928.0910417437553 683.6589276790619 0 0 0
616.6707689408213 932.9690486192703 684.4861805438995 0 0 0
531.1966761946678 904.7735556960106 662.7117097377777 0 0 0
521.5127989649773 967.984527349472 606.6124141216278 0 0 0
575.3527171909809 1037.7463847398758 552.2074401378632 0 0 0
565.1357620954514 1031.6533595323563 554.1075170040131 0 0 0
593.2230819016695 947.4805146455765 663.4593904018402 0 0 0
599.4244338944554 941.528707742691 670.2806651592255 0 0 0
567.3179551959038 839.4466917961836 681.6500127315521 0 0 0
431.9268614053726 920.7885414361954 572.2341239452362 0 0 0
563.5188184678555 957.0067897439003 642.4659192562103 0 0 0
555.2851930260658 1050.5068600177765 514.6417915821075 0 0 0
564.3972642719746 1057.4576705694199 510.1052224636078 0 0 0
552.0518757402897 836.4413981325924 669.8040068149567 0 0 0
496.574729681015 881.1561018228531 646.672934293747 0 0 0
628.9557265117764 893.9380869269371 712.1467888355255 0 0 0
500.39178878068924 897.3548039793968 646.0162103176117 0 0 0
512.236662209034 882.659699767828 657.4456989765167 0 0 0
486.69612407684326 831.6007843241096 611.7456257343292 0 0 0
495.09813636541367 833.510133146774 623.4162747859955 0 0 0
495.1901212334633 865.9923411905766 645.0108587741852 0 0 0
502.43379175662994 862.0718084275723 647.8056013584137 0 0 0
500.0080466270447 857.2125248610973 645.1750695705414 0 0 0
465.05220234394073 853.7246771156788 615.0606572628021 0 0 0
614.8352798772976 826.1405313387513 701.2347877025604 0 0 0
616.2430663825944 832.6490253675729 706.8739235401154 0 0 0
601.6578609123826 842.3712234944105 704.1179835796356 0 0 0
614.0346816391684 843.7624340876937 710.5639278888702 0 0 0
594.0433088690042 917.2883331775665 682.0232570171356 0 0 0
601.0748958215117 920.4542860388756 682.4993789196014 0 0 0
